-0.3126781 -0.096802853 -0.17478019
-0.31399179 -0.096833259 -0.16569512
-0.31342411 -0.097071461 -0.15649197
-0.32427943 -0.092549823 -0.17222506
-0.32356441 -0.092849769 -0.16012414
-0.32302493 -0.093076035 -0.15099686
-0.43168247 -0.07964389 -0.1098666
-0.43507558 -0.079434536 -0.10217859
-0.43946779 -0.079168081 -0.091974378
-0.44004524 -0.079302244 -0.081195652
-0.44062477 -0.079436846 -0.070380375
-0.44106078 -0.079538107 -0.062244803
-0.44164377 -0.079673514 -0.051365018
-0.30276829 -0.097426124 0.14623688
-0.31549782 -0.096155584 0.14801885
-0.31528783 -0.096363805 0.15843447
-0.31467837 -0.096616797 0.16906701
-0.33195472 -0.085665032 -0.17552948
-0.33399904 -0.085616209 -0.16668083
-0.39640468 -0.079489924 -0.16421929
-0.40445602 -0.078829005 -0.15642677
-0.41241032 -0.078222819 -0.14602837
-0.41829807 -0.077774078 -0.1383341
-0.42263448 -0.077479787 -0.13057646
-0.42721802 -0.077206582 -0.12019071
-0.44232631 -0.077093951 -0.040470034
-0.44276649 -0.077192664 -0.032259047
-0.44335514 -0.077324681 -0.021278247
-0.44394726 -0.077456996 -0.010260239
-0.44439256 -0.077556536 -0.0019719005
-0.44401652 -0.077790618 0.0093957782
-0.44355094 -0.077986047 0.018021867
-0.44292867 -0.078247942 0.029590234
-0.44245923 -0.078445517 0.03831768
-0.44182944 -0.078710519 0.050023034
-0.44135445 -0.07891044 0.058854088
-0.44087696 -0.079111382 0.067730084
-0.44023645 -0.079380915 0.079635397
-0.43975329 -0.079584263 0.088617668
-0.32512653 -0.09193527 0.14750047
-0.32564098 -0.092057794 0.15751053
-0.32508153 -0.092295051 0.16801451
-0.3662771 -0.079220064 -0.18542515
-0.3763544 -0.078348227 -0.18007778
-0.38417387 -0.07769125 -0.17476052
-0.43706632 -0.077213995 0.09854205
-0.43224359 -0.077856451 0.10945798
-0.42734355 -0.078509316 0.12055565
-0.4240309 -0.078950673 0.12805803
-0.35131669 -0.077627957 -0.19079217
-0.41651511 -0.072438732 -0.14090413
-0.43081737 -0.071582042 -0.11247247
-0.43534929 -0.071330659 -0.10221718
-0.43975937 -0.071089543 -0.092019685
-0.44033718 -0.07120996 -0.081245214
-0.44091833 -0.071330659 -0.070434466
-0.44135547 -0.071421452 -0.062302351
-0.44194013 -0.071542867 -0.05142723
-0.44459611 -0.072094344 -0.002028212
-0.4442274 -0.072311245 0.0093342662
-0.44376224 -0.072492883 0.017957836
-0.41740382 -0.076884188 0.14018627
-0.41012603 -0.077706195 0.14969002
-0.40252572 -0.078562379 0.15947615
-0.39462984 -0.079398796 0.16634713
-0.38052779 -0.072322264 -0.17741758
-0.38759822 -0.071779087 -0.17211521
-0.39962697 -0.070877545 -0.16163856
-0.40870112 -0.07023634 -0.15122613
-0.44324458 -0.069981799 0.029489681
-0.44277436 -0.070158601 0.038213775
-0.44214362 -0.070395723 0.049914643
-0.44166774 -0.070574626 0.058742389
-0.44118947 -0.070754439 0.067615047
-0.44054794 -0.070995614 0.079515889
-0.44006521 -0.07117746 0.088494375
-0.43248969 -0.072170779 0.10935493
-0.38676524 -0.077205516 0.1732706
-0.35118753 -0.071780264 -0.19078936
-0.35967052 -0.071099348 -0.18810654
-0.37160802 -0.070164755 -0.1827451
-0.42280132 -0.066590987 -0.13059343
-0.42737502 -0.06635695 -0.1202089
-0.44249332 -0.066258997 -0.04050754
-0.44294029 -0.066343226 -0.032299995
-0.44353747 -0.066455908 -0.021323904
-0.44413668 -0.066568978 -0.010310531
-0.42771161 -0.069911011 0.1203972
-0.42439616 -0.070304431 0.12789787
-0.41041368 -0.071815163 0.14955814
-0.24861139 -0.077243082 -0.18857113
-0.43726009 -0.065965943 0.098463193
-0.40307736 -0.069619894 0.15921892
-0.3952226 -0.070357956 0.16606833
-0.4024381 -0.062355015 -0.159051
-0.40852833 -0.061986901 -0.15121339
-0.41639555 -0.061514057 -0.14089364
-0.43064469 -0.060790982 -0.1124506
-0.4351595 -0.060578942 -0.10219043
-0.4395411 -0.060376551 -0.091985762
-0.44012737 -0.060478155 -0.0812096
-0.44071537 -0.060580127 -0.070397049
-0.4411577 -0.060656827 -0.062263727
-0.44174922 -0.060759395 -0.051387146
-0.44443595 -0.061225288 -0.0019838959
-0.44407678 -0.061408695 0.0093781948
-0.44362366 -0.061561953 0.017999843
-0.44301599 -0.061767492 0.029562429
-0.44255763 -0.061922543 0.038285241
-0.44194281 -0.062130496 0.049983934
-0.44147897 -0.062287383 0.058809683
-0.44101286 -0.062445059 0.067680046
-0.41758496 -0.065263778 0.14010467
-0.35923481 -0.062425949 -0.1880956
-0.37130028 -0.061596237 -0.18273526
-0.38025659 -0.060997967 -0.17740704
-0.39047426 -0.060339808 -0.16946328
-0.44029152 -0.059879467 0.079614237
-0.43982935 -0.060031183 0.088587597
-0.43229592 -0.060865395 0.10943608
-0.42743862 -0.061372377 0.12051471
-0.42415512 -0.061715093 0.12800355
-0.38701206 -0.065074913 0.17315347
-0.42228192 -0.055756591 -0.13054055
-0.42684448 -0.055561662 -0.12014736
-0.44189906 -0.055485122 -0.040374085
-0.44234854 -0.055555496 -0.03216055
-0.44294965 -0.055649605 -0.021176651
-0.44355273 -0.055744037 -0.010155529
-0.41014111 -0.060111187 0.14968313
-0.4026193 -0.06076749 0.15943255
-0.39482909 -0.061406385 0.16625343
0.25517368 -0.098298267 -0.17767659
-0.43673915 -0.052456573 -0.096988454
-0.43912178 -0.052419886 -0.086486436
-0.43647796 -0.054794375 0.098781481
-0.41694343 -0.056608766 0.14039363
0.23909056 -0.092110835 -0.18785979
0.23279512 -0.091815926 -0.17816053
-0.38349444 -0.052308943 -0.17473176
-0.39287996 -0.051795851 -0.16680315
-0.40382493 -0.051210679 -0.15638469
-0.41171455 -0.050821498 -0.14597225
-0.41755348 -0.050533477 -0.13826616
-0.42975706 -0.050041929 -0.11233816
-0.43942934 -0.049833991 -0.075632289
-0.44002742 -0.04991753 -0.064788863
-0.44047731 -0.049980376 -0.056632355
-0.44350469 -0.050403457 -0.0017262697
-0.44312692 -0.050555669 0.009655267
-0.44268274 -0.0506812 0.018284962
-0.44208711 -0.050849538 0.029858008
-0.44163787 -0.050976526 0.03858842
-0.44103533 -0.051146835 0.050296977
-0.44058073 -0.051275324 0.059129909
-0.4401238 -0.051404454 0.068007305
-0.43951106 -0.051577643 0.079913631
-0.4390468 -0.051708434 0.088896886
-0.43143028 -0.052432176 0.10979857
-0.38611263 -0.056057215 0.17358012
0.23067641 -0.086619794 -0.18798395
0.22472966 -0.08636146 -0.17833498
-0.35808098 -0.050882149 -0.18806668
-0.37028086 -0.050198685 -0.18270269
-0.42599648 -0.047483198 -0.12004898
-0.44065332 -0.047385022 -0.045632631
-0.44110566 -0.04744488 -0.037423268
-0.42627126 -0.050030455 0.12101735
-0.42303258 -0.050306574 0.1284958
-0.40904576 -0.051386237 0.15018512
-0.40120941 -0.051967241 0.16008998
0.22959602 -0.081510365 -0.19774666
0.17149222 -0.07827422 -0.18885727
0.14589882 -0.076851793 -0.18464009
0.1180383 -0.075297423 -0.18064222
-0.42107201 -0.044947725 -0.13041736
-0.4412837 -0.044834688 -0.026341453
-0.44189012 -0.044910509 -0.01531975
-0.43524909 -0.0464398 0.099281624
0.20640135 -0.075366773 -0.19313891
-0.23877656 -0.051509224 -0.18507616
-0.41452813 -0.042478286 -0.14072984
-0.42860031 -0.041990578 -0.11219162
-0.43307418 -0.041847043 -0.10189644
-0.43729335 -0.041716862 -0.091636576
-0.43788308 -0.041786976 -0.080828533
-0.43847471 -0.041857328 -0.069984108
-0.43891966 -0.041910246 -0.061826795
-0.44191843 -0.042266324 -0.0069138557
-0.44210458 -0.042361952 0.0043001622
-0.44166625 -0.04246667 0.012914941
-0.41498309 -0.045110412 0.14127652
-0.39209837 -0.046588119 0.1675377
0.22466791 -0.071339406 -0.20263337
0.21772873 -0.071075216 -0.1930106
0.17378819 -0.068902202 -0.1888234
-0.36350572 -0.041910645 -0.18534613
-0.37395132 -0.041432485 -0.17999268
-0.38560134 -0.040916793 -0.17202374
-0.39451873 -0.04053802 -0.16411325
-0.40239632 -0.04021078 -0.15628943
-0.40828651 -0.039983649 -0.14844726
-0.44058418 -0.03988447 0.024621353
-0.44014925 -0.039983172 0.033339217
-0.43956602 -0.040115535 0.045030311
-0.43912607 -0.04021538 0.053849533
-0.43868387 -0.040315729 0.062712803
-0.43809086 -0.040450305 0.074599549
-0.43764347 -0.04055183 0.08356674
-0.42948544 -0.04120047 0.110613
-0.42631102 -0.041425016 0.1179771
-0.42148399 -0.041766465 0.12917484
0.14888549 -0.063019045 -0.18458578
-0.41969222 -0.036841173 -0.13027686
-0.4230929 -0.036746196 -0.12244491
-0.43839073 -0.03661868 -0.050682306
-0.43884122 -0.036665007 -0.042464942
-0.43944389 -0.036726952 -0.031476021
-0.4400484 -0.036789112 -0.020449892
-0.40655297 -0.039766919 0.15132765
-0.39796084 -0.040253561 0.16160484
-0.38130593 -0.041150384 0.17585997
0.21859896 -0.061236162 -0.20266056
0.21299064 -0.061065912 -0.19306427
0.17535174 -0.059466429 -0.18880032
-0.23792595 -0.041551787 -0.18834005
-0.43576467 -0.035112739 0.093149617
-0.41616511 -0.036300652 0.13766111
0.14974201 -0.05371717 -0.18457021
-0.38714421 -0.032408759 -0.16929922
-0.39303935 -0.032210443 -0.16403008
-0.40086472 -0.031953122 -0.1561873
-0.40867013 -0.031714894 -0.14572659
-0.42646116 -0.031241531 -0.11192061
-0.43091047 -0.03113625 -0.1015914
-0.43497568 -0.031046191 -0.091276534
-0.43556637 -0.031098405 -0.080435187
-0.4360109 -0.031137668 -0.072280258
-0.43660545 -0.031190172 -0.061374992
-0.43928826 -0.031429388 -0.011837915
-0.43989086 -0.031483013 -0.00072650611
-0.43956125 -0.031556156 0.0078573376
-0.43898392 -0.031659901 0.019405797
-0.43854821 -0.031738162 0.028117105
-0.43796414 -0.031843111 0.039799422
-0.43752342 -0.031922281 0.048611954
-0.43693256 -0.032028455 0.060430422
-0.43648678 -0.032108549 0.069345966
-0.43603879 -0.032189045 0.078306243
-0.3880924 -0.034738343 0.16942175
0.21599662 -0.051343538 -0.20267221
0.21045697 -0.051202919 -0.19309296
0.17588294 -0.049971204 -0.18879248
-0.36123002 -0.030432394 -0.18528125
-0.37181753 -0.030081037 -0.17991711
-0.42955422 -0.029793894 0.10459049
-0.42487317 -0.030034414 0.11556558
-0.42171013 -0.030196929 0.12298129
-0.40739632 -0.030876704 0.14781524
-0.37516135 -0.032248244 0.17877443
0.14980161 -0.044377033 -0.18456909
-0.23924041 -0.031535886 -0.18836847
-0.41492206 -0.026053548 -0.13528444
-0.41832149 -0.025987072 -0.12739766
-0.43561685 -0.025863471 -0.050100163
-0.43605942 -0.025896519 -0.041850433
-0.43665695 -0.025940523 -0.030819252
-0.43725759 -0.025984636 -0.019750804
-0.43399799 -0.026713787 0.087933972
-0.39919281 -0.028264396 0.15786363
0.21504486 -0.041535709 -0.2026765
0.20954978 -0.041423157 -0.19310324
0.17563605 -0.040445555 -0.18879613
-0.41496009 -0.024706809 0.13511528
-0.39140469 -0.02555391 0.16466202
0.14902043 -0.035014089 -0.18458331
-0.35901505 -0.021795319 -0.1852181
-0.36975497 -0.021540429 -0.17984405
-0.37824184 -0.021343971 -0.17450944
-0.38754326 -0.021138415 -0.16652168
-0.39815426 -0.020910315 -0.15600657
-0.40591067 -0.020756416 -0.14550394
-0.42126113 -0.020488126 -0.11675712
-0.42570394 -0.02042 -0.10634778
-0.43010139 -0.020352751 -0.096005037
-0.43204153 -0.020350916 -0.085335463
-0.43247437 -0.020376934 -0.077157319
-0.433061 -0.020411519 -0.066221997
-0.43602449 -0.020586213 -0.01098384
-0.43662328 -0.020621514 0.00017747283
-0.43620282 -0.020671865 0.0088243186
-0.43577474 -0.020722615 0.017515197
-0.43520081 -0.020790668 0.029169545
-0.4347679 -0.020842001 0.037960723
-0.43418729 -0.020910844 0.049749985
-0.43374938 -0.020962773 0.058643177
-0.4333092 -0.021014962 0.067580655
-0.43271887 -0.021084953 0.079566792
-0.42961448 -0.02125241 0.098587766
-0.42501259 -0.021421725 0.10946943
-0.4203366 -0.021593763 0.12052597
-0.4073773 -0.022041082 0.144702
-0.40044004 -0.022264518 0.15412946
-0.38242424 -0.022815032 0.17208751
0.21651781 -0.031795837 -0.20266987
0.21100974 -0.031709515 -0.1930867
0.17445862 -0.030902347 -0.18881349
-0.24228024 -0.021508383 -0.18843421
0.14738107 -0.025645632 -0.18461312
-0.41163284 -0.015147416 -0.13497275
-0.41501915 -0.015109301 -0.12704971
-0.43167889 -0.015032828 -0.054850295
-0.43211401 -0.015052195 -0.046573117
-0.43269604 -0.015078093 -0.035503611
-0.4331339 -0.015097575 -0.027176484
-0.43019378 -0.015543418 0.089422807
-0.41478974 -0.015969684 0.12903367
-0.3862378 -0.016641509 0.16707142
-0.37855691 -0.016810883 0.17390637
0.22015333 -0.022069298 -0.20265359
0.21464574 -0.022009609 -0.19304551
0.17237294 -0.021361299 -0.18884429
-0.40331805 -0.012494891 -0.14529476
-0.41851026 -0.012336715 -0.11642823
-0.42292273 -0.012296432 -0.10597558
-0.42730659 -0.012256409 -0.095590971
-0.42908049 -0.012258086 -0.084854111
-0.42951214 -0.012273803 -0.076643616
-0.43008959 -0.01229482 -0.065663531
-0.43271244 -0.012390299 -0.015784085
-0.43315357 -0.012406356 -0.0073954612
-0.43337291 -0.012433899 0.0039272457
-0.43294573 -0.012464354 0.012625024
0.14491677 -0.016289942 -0.18465795
-0.24694359 -0.011524615 -0.18853506
-0.34829676 -0.010295733 -0.18782142
-0.36119562 -0.010150651 -0.18241231
-0.37081766 -0.010045269 -0.17704013
-0.37830758 -0.0099657243 -0.1716897
-0.38993168 -0.0098472228 -0.16105974
-0.43111336 -0.0097423764 0.024675086
-0.43067747 -0.0097664166 0.033488616
-0.43009293 -0.0097986544 0.04530789
-0.42965198 -0.0098229721 0.054223672
-0.42920882 -0.0098474119 0.063183799
-0.42862344 -0.0098800724 0.075196967
-0.42449564 -0.0099843275 0.10065104
-0.42148155 -0.010036354 0.10790761
-0.41684377 -0.010116164 0.11895956
-0.40815789 -0.010262376 0.13812484
-0.40145916 -0.010363358 0.14736743
-0.39455962 -0.010467233 0.15682463
-0.37198341 -0.010784215 0.17699797
0.22319996 -0.012294525 -0.19779721
0.20366538 -0.012132168 -0.19316989
0.16919494 -0.011839766 -0.18889117
-0.39746779 -0.006984585 -0.15039852
-0.40692186 -0.0069225137 -0.13729617
-0.41192019 -0.0068952367 -0.1267232
-0.4281227 -0.0068607908 -0.056926206
-0.42869157 -0.0068726991 -0.045842275
-0.42926252 -0.006884648 -0.03471984
-0.42969728 -0.0068935892 -0.026353881
-0.4269197 -0.0070864758 0.084743366
-0.41067398 -0.0072973585 0.13082208
0.14138162 -0.006962962 -0.18472226
-0.38475925 -0.0045439824 0.16453658
0.19950902 -0.0024192247 -0.19321699
0.16505158 -0.0023607626 -0.18895231
-0.25449848 -0.0016332319 -0.18869844
-0.34474665 -0.0014770119 -0.18773244
-0.35792011 -0.0014558143 -0.18230763
-0.36771107 -0.0014404716 -0.17691937
-0.37817043 -0.0014247823 -0.1688571
-0.38679379 -0.0014122537 -0.16087238
-0.41395491 -0.0013788205 -0.1158836
-0.41834414 -0.0013744055 -0.10536288
-0.42264378 -0.0013701284 -0.094900146
-0.42399395 -0.0013702482 -0.086800575
-0.42454571 -0.0013726394 -0.075782374
-0.42495894 -0.0013744418 -0.067493126
-0.42751604 -0.0013852566 -0.017310545
-0.42808986 -0.0013876829 -0.0060514808
-0.42815381 -0.001391049 0.0053906888
-0.42771989 -0.0013944632 0.014149383
-0.42728382 -0.0013978942 0.02295123
-0.42669898 -0.0014024953 0.034754574
-0.42625791 -0.0014059659 0.043658242
-0.42581445 -0.001409454 0.052606091
-0.42521989 -0.0014141317 0.064605847
-0.42477202 -0.0014176592 0.073657766
-0.42278528 -0.0014276889 0.095324412
-0.41983956 -0.0014349865 0.10252781
-0.41528249 -0.0014462256 0.11350577
-0.40269339 -0.0014762743 0.14054261
-0.3960126 -0.0014906798 0.1498204
-0.37518412 -0.0015336104 0.17222585
0.21054828 0.0073151533 -0.19309193
0.14172447 0.0069647185 -0.18471603
-0.39273065 0.0042156992 -0.15004949
-0.39838654 0.0041935137 -0.1421071
-0.40473586 0.0041701151 -0.13153826
-0.42267025 0.0041458155 -0.055841789
-0.42308563 0.0041512856 -0.047470227
-0.42364138 0.0041586016 -0.036273748
-0.42419899 0.0041659437 -0.025037795
-0.42130774 0.0042802976 0.083899453
-0.40713513 0.0043925582 0.12615819
-0.38376331 0.0045466232 0.16177298
0.17376328 0.011879482 -0.18882377
-0.26650196 0.0080616334 -0.18895802
-0.40745616 0.0069431183 -0.12068652
-0.41717845 0.0068949927 -0.096874669
-0.37353188 0.007678539 0.16972728
-0.35758972 0.0078330394 0.18043037
0.18259358 0.016738709 -0.18869346
0.14952421 0.016346019 -0.18457416
-0.32745063 0.010543557 -0.19027604
-0.3374297 0.010428215 -0.18754902
-0.34517956 0.010339932 -0.18482363
-0.35712755 0.010206429 -0.17939688
-0.36645794 0.010104619 -0.17401057
-0.37265599 0.010040917 -0.16858539
-0.38116932 0.0099546881 -0.16053659
-0.38747007 0.0098953377 -0.15247974
-0.40881336 0.0097213248 -0.11247863
-0.41731679 0.0096749747 -0.085739218
-0.41771168 0.0096879117 -0.077403635
-0.41824454 0.0097051561 -0.066255659
-0.42068481 0.0097832866 -0.01559931
-0.42109531 0.0097964313 -0.0070772022
-0.42123437 0.009819231 0.0044347793
-0.42078781 0.0098434305 0.013262674
-0.42018884 0.0098758833 0.0251012
-0.41973716 0.0099003632 0.034031376
-0.41928309 0.0099249659 0.043006018
-0.41867417 0.0099579599 0.055041745
-0.4182148 0.0099828495 0.064121231
-0.41775948 0.010007783 0.073243871
-0.41585553 0.010077248 0.095034197
-0.41144484 0.01015393 0.10591145
-0.40843105 0.010206169 0.11327012
-0.39918357 0.010366388 0.13581498
-0.39284313 0.010462686 0.14490081
0.20486212 0.021869706 -0.18836488
-0.3930245 0.012665507 -0.14165562
-0.39915138 0.01259905 -0.13098936
-0.40348911 0.012560742 -0.12024044
-0.41642016 0.012530682 -0.057434171
-0.41694915 0.012553198 -0.046182364
-0.41747993 0.012575797 -0.034890026
-0.4178794 0.012592798 -0.026394114
-0.41491407 0.012939113 0.083309636
-0.40104926 0.013271277 0.12563582
-0.38627189 0.013571311 0.15100576
-0.37881434 0.013714501 0.16080166
-0.30546689 0.01697927 -0.1928498
-0.4086991 0.015316066 -0.1012678
-0.31896776 0.019772895 -0.19009261
-0.32964319 0.019543033 -0.18735385
-0.33786261 0.019368546 -0.18461503
-0.35056597 0.019103676 -0.17916453
-0.36046922 0.018901767 -0.17375705
-0.36933136 0.018734349 -0.16556114
-0.37724161 0.018588018 -0.15745883
-0.38289505 0.018492691 -0.14932485
-0.40191978 0.018212687 -0.11162992
-0.40966177 0.018122949 -0.090162136
-0.41003925 0.018147636 -0.081758752
-0.4105441 0.018180657 -0.070518538
-0.41294199 0.018339766 -0.016557887
-0.41344911 0.018373691 -0.0050763339
-0.41350716 0.018406857 0.003651008
-0.41305012 0.018452341 0.012556314
-0.41243738 0.018513335 0.024498776
-0.41197509 0.018559344 0.033507496
-0.41151047 0.018605586 0.042561188
-0.41088742 0.018667599 0.054703131
-0.41041744 0.018714381 0.063862875
-0.40993994 0.018761517 0.073070422
-0.40797943 0.01889259 0.095060512
-0.40357083 0.0190352 0.10600023
-0.40059823 0.019131387 0.11338408
-0.39146221 0.019426726 0.13600545
-0.36912328 0.020045711 0.16520478
-0.29750097 0.023361422 -0.1927049
-0.38577253 0.021300629 -0.141045
-0.3916111 0.02119796 -0.1302482
-0.39484137 0.021151081 -0.12209758
-0.40936553 0.021205431 -0.027284637
-0.40617251 0.021793686 0.083547279
-0.39229447 0.022349069 0.12618713
-0.38066965 0.022746665 0.14707126
-0.37426108 0.022955751 0.15636747
-0.35516137 0.023536999 0.17488225
-0.29157448 0.026651535 -0.19259712
-0.31077814 0.026099222 -0.18991551
-0.4001863 0.023927268 -0.10009816
-0.40450513 0.024002668 -0.06085518
-0.40485859 0.024036447 -0.052299321
-0.40533161 0.024081627 -0.040853977
-0.40638477 0.024184451 -0.014939681
-0.40673536 0.024218993 -0.006251663
-0.406874 0.024260215 0.00251849
-0.4062382 0.024340814 0.01449202
-0.40131891 0.024899488 0.094563141
-0.39694202 0.025085231 0.10553919
-0.31778628 0.02895532 -0.18705663
-0.3348434 0.028424958 -0.1815701
-0.34713823 0.028051302 -0.17611969
-0.35520118 0.027817307 -0.17063147
-0.36350876 0.027591266 -0.16236985
-0.37578535 0.027281616 -0.14593884
-0.39243561 0.026937807 -0.11046226
-0.39943624 0.026816839 -0.091461807
-0.39988029 0.026867764 -0.080107301
-0.40021443 0.026906084 -0.07156308
-0.40178412 0.027086455 -0.031365037
-0.40165061 0.02741478 0.024738237
-0.4011519 0.027483923 0.033867702
-0.4006505 0.027553422 0.04304333
-0.39997679 0.027646679 0.055350378
-0.39946413 0.02771719 0.064636961
-0.39894897 0.027788056 0.073971048
-0.398431 0.027859293 0.083352998
-0.38908076 0.028349683 0.11492582
-0.38458413 0.028563179 0.12624042
-0.38154638 0.028707379 0.13387959
-0.36669254 0.029327262 0.156471
-0.34700423 0.030084459 0.17525472
-0.2697053 0.033721481 -0.19219933
-0.29725683 0.032734513 -0.1896231
-0.37728083 0.030152967 -0.13746268
-0.38203633 0.030050103 -0.12644255
-0.39144588 0.029864905 -0.10176329
-0.3961224 0.029947199 -0.062178507
-0.39654487 0.030005408 -0.050645843
-0.39686173 0.030049255 -0.041966617
-0.39741355 0.030405449 0.016999617
-0.39223641 0.031091357 0.094937578
-0.37248391 0.032104302 0.14094163
-0.35371375 0.032944869 0.16553999
-0.28646338 0.036284264 -0.18938969
-0.3033061 0.035631292 -0.18669368
-0.35532588 0.033729561 -0.16190979
-0.36363053 0.033475909 -0.15080675
-0.38141942 0.033017468 -0.11487796
-0.38992137 0.03285186 -0.090052128
-0.39021111 0.032900561 -0.081430703
-0.39059865 0.032965723 -0.069895595
-0.39182866 0.033180967 -0.032080039
-0.3922075 0.033247881 -0.020344242
-0.39249259 0.033298247 -0.011511296
-0.39286518 0.033366002 0.00031001866
-0.39141917 0.033594415 0.024738044
-0.39087182 0.033680879 0.033985034
-0.39031518 0.033768058 0.043281719
-0.3897391 0.033856388 0.052632108
-0.38896638 0.033974878 0.065175548
-0.38838327 0.034064293 0.074640945
-0.38779706 0.03415418 0.08415623
-0.38237226 0.034516126 0.10498239
-0.37785393 0.034775209 0.11626549
-0.37478173 0.03495105 0.12389104
-0.31657797 0.038197577 -0.18098633
-0.32522869 0.037843175 -0.17826724
-0.33267587 0.037540879 -0.17555752
-0.34420884 0.037104469 -0.16718388
-0.36325687 0.036469467 -0.14206232
-0.37124878 0.03624998 -0.12534413
-0.37849528 0.03608394 -0.10584427
-0.38434088 0.036178719 -0.06000717
-0.38456887 0.036235623 -0.051215768
-0.38479751 0.036292709 -0.04239662
-0.38583714 0.03656318 -0.00086100399
-0.38532889 0.036654945 0.0083174556
-0.38245761 0.03711066 0.051916555
-0.38204151 0.037176687 0.058233634
-0.38141465 0.037276175 0.067751542
-0.38057339 0.037409663 0.080521718
-0.37993264 0.037510678 0.090161636
-0.37170368 0.038035743 0.1123134
-0.36694229 0.038329814 0.12384923
-0.36210674 0.038628466 0.1355647
-0.35585141 0.038969386 0.14474078
-0.34949791 0.039315756 0.15407442
-0.34035057 0.039793458 0.16475059
-0.26997483 0.043395612 -0.1858582
-0.33631361 0.04044573 -0.16679488
-0.34609514 0.040080462 -0.15549067
-0.35158843 0.039892752 -0.14701831
-0.36088991 0.0395955 -0.13016425
-0.36604363 0.039470147 -0.11602964
-0.37014318 0.039370436 -0.10478622
-0.37320429 0.039295983 -0.096390858
-0.3748008 0.039315738 -0.084871978
-0.37493646 0.039381746 -0.076052412
-0.37507266 0.039447978 -0.067203209
-0.37525481 0.039536633 -0.055357859
-0.37539208 0.039603386 -0.046438888
-0.37552989 0.039670363 -0.037489697
-0.37571412 0.039760023 -0.025510237
-0.37583554 0.039828382 -0.016485989
-0.37595016 0.039897326 -0.0074288994
-0.37568945 0.040009905 0.0048045367
-0.3749637 0.040120728 0.014169484
-0.37423384 0.040232163 0.023586407
-0.37349981 0.040344227 0.033055812
-0.37226748 0.040532388 0.048955962
-0.37152249 0.040646132 0.058567479
-0.37076461 0.040760949 0.068235949
-0.37000072 0.040876497 0.07795985
-0.36923254 0.040992703 0.087739006
-0.36650413 0.041207124 0.098301426
-0.36172152 0.041525014 0.10975172
-0.35684603 0.041848775 0.12138744
-0.35189396 0.042177625 0.13320608
-0.34352404 0.042679522 0.14661025
-0.33705759 0.043059807 0.1560557
-0.32695574 0.043624263 0.1672001
-0.32095683 0.043954834 0.17325442
-0.29300803 0.045501281 -0.18023302
-0.30518776 0.044912301 -0.1775575
-0.32072264 0.044179324 -0.1720745
-0.33562666 0.043581724 -0.15482917
-0.34097278 0.043388579 -0.1462362
-0.34784508 0.043143019 -0.13488068
-0.35092306 0.043064285 -0.12624894
-0.35487729 0.042966537 -0.11477396
-0.35783136 0.042893514 -0.10620189
-0.3617543 0.042796537 -0.094817646
-0.36267012 0.042828053 -0.086014695
-0.36274213 0.042903304 -0.07706441
-0.36282653 0.043004677 -0.065079615
-0.36286908 0.043082114 -0.056049883
-0.36291176 0.043159831 -0.046987593
-0.36296898 0.043263882 -0.034853548
-0.36301202 0.043342259 -0.025714561
-0.36305517 0.043420918 -0.01654236
-0.36309618 0.04349998 -0.0073362738
-0.36267471 0.043630894 0.005113706
-0.36184114 0.043756764 0.014639258
-0.36099935 0.04388354 0.024220958
-0.36015266 0.044011049 0.033858255
-0.35930103 0.044139307 0.043551818
-0.35844433 0.044268318 0.053301975
-0.35758281 0.044398077 0.063109353
-0.3567161 0.0445286 0.072974309
-0.35584438 0.04465989 0.082897499
-0.35489488 0.044795837 0.092905477
-0.35006613 0.045140121 0.10441531
-0.34514761 0.045490541 0.11610909
-0.34180307 0.045728423 0.12401529
-0.33668518 0.046091832 0.13604505
-0.33040452 0.046489544 0.14533176
-0.32397753 0.046896178 0.15479554
-0.31447369 0.047470171 0.16569079
-0.30792981 0.047919013 -0.17153293
-0.3184737 0.047462329 -0.15983793
-0.32401568 0.047247045 -0.15106291
-0.3292942 0.047045331 -0.14235067
-0.33496898 0.046849705 -0.1307314
-0.33785588 0.046777282 -0.12194389
-0.3416602 0.046682768 -0.11026579
-0.34450322 0.046612136 -0.10153814
-0.34748685 0.046562023 -0.089830332
-0.34741426 0.046651788 -0.080716044
-0.34733826 0.046742063 -0.071566045
-0.34723264 0.046834324 -0.062375441
-0.34709132 0.046957895 -0.050064787
-0.34698457 0.047051009 -0.040789068
-0.34685355 0.047145832 -0.031471401
-0.34669131 0.047242746 -0.022109374
-0.34646285 0.047373209 -0.0095639974
-0.34627247 0.047472551 -0.00010493398
-0.34527332 0.047617711 0.009602353
-0.34424257 0.047765199 0.019375995
-0.34320539 0.0479136 0.029210404
-0.34216172 0.048062932 0.039106101
-0.34111154 0.048213191 0.049063697
-0.34005481 0.048364397 0.059083715
-0.3389914 0.048516557 0.069166854
-0.33790922 0.048670355 0.079317555
-0.33671463 0.048831157 0.089569762
-0.33266109 0.049155977 0.10091721
-0.32909566 0.049422607 0.10887302
-0.32367432 0.049828026 0.12096994
-0.31996799 0.05010445 0.12916182
-0.31550694 0.050424971 0.1377271
-0.30503571 0.051124986 0.15227677
-0.29577053 0.051724896 0.16308303
-0.2493819 0.054353397 -0.1723198
-0.28780389 0.052170932 -0.17068094
-0.29579228 0.051803987 -0.16168249
-0.30373293 0.051469602 -0.14971045
-0.3089838 0.05125862 -0.14078313
-0.31312352 0.051111434 -0.13183504
-0.31672823 0.051025897 -0.11979258
-0.31940871 0.050962817 -0.11078548
-0.3220827 0.050899889 -0.10180062
-0.32477158 0.05086698 -0.089736283
-0.32429945 0.050988328 -0.08032985
-0.32379949 0.051111765 -0.070874378
-0.32327878 0.051236875 -0.061369881
-0.32257944 0.051372997 -0.051786944
-0.32185495 0.051511109 -0.042148888
-0.3211146 0.051650681 -0.032456383
-0.31999099 0.051845681 -0.019422844
-0.31914294 0.051992897 -0.0095828921
-0.31827605 0.052141774 0.00031636655
-0.31669188 0.052334066 0.010450974
-0.31568086 0.052492779 0.0205075
-0.31467789 0.052651599 0.030621424
-0.31367016 0.052811306 0.040796265
-0.31299478 0.052918326 0.047613874
-0.31197679 0.053079657 0.057892278
-0.3109526 0.053241979 0.068233535
-0.3099426 0.053404052 0.078631565
-0.30892682 0.053567089 0.089092895
-0.30549729 0.053877335 0.1004581
-0.30235213 0.05413704 0.10840653
-0.29754084 0.054533537 0.12048726
-0.29429412 0.054801106 0.12863992
-0.28740501 0.055327121 0.14177884
-0.28063703 0.055812038 0.15150972
-0.27223259 0.056398466 0.1620241
-0.26556391 0.056843467 0.16834129
-0.13889873 0.064399369 -0.16802521
-0.26460707 0.05675124 -0.16969895
-0.27332234 0.056320101 -0.16049738
-0.27933598 0.056053203 -0.15127215
-0.28477788 0.055820484 -0.14209598
-0.29020333 0.055621684 -0.12982456
-0.2928223 0.055561479 -0.12053816
-0.29543561 0.055501413 -0.11127183
-0.29805881 0.055440515 -0.10202736
-0.30075938 0.055408474 -0.089627475
-0.30058074 0.055521514 -0.08001861
-0.30040145 0.055635013 -0.070370495
-0.30022132 0.055748984 -0.060682803
-0.30004054 0.055863414 -0.050955355
-0.29989588 0.055976 -0.041194871
-0.29975796 0.056088593 -0.031396404
-0.29961938 0.056201637 -0.021558374
-0.29948032 0.056315139 -0.011680663
-0.29934055 0.056429107 -0.0017628968
-0.29852045 0.056586552 0.0083602518
-0.29754281 0.056754582 0.018579021
-0.29656047 0.056923535 0.028858274
-0.2955724 0.05709349 0.039198935
-0.29457825 0.05726447 0.04960151
-0.29357833 0.05743647 0.060066625
-0.29257953 0.057609048 0.070592478
-0.29191285 0.057724513 0.077644095
-0.29090798 0.057898574 0.088274732
-0.28771853 0.058213823 0.099712744
-0.28453881 0.0584925 0.10776825
-0.27971697 0.058915224 0.11999519
-0.27649796 0.059198223 0.12823243
-0.26950657 0.059764095 0.14153691
-0.26235229 0.060304169 0.15148588
-0.25322163 0.06097389 0.1623459
-0.24599034 0.061482534 0.16890053
0.0020481348 0.077185117 -0.16254647
-0.25624597 0.060644284 -0.15959674
-0.26255304 0.060345098 -0.15021163
-0.2683506 0.060077947 -0.1408857
-0.27281529 0.059896607 -0.13153405
-0.27556831 0.059826259 -0.12207903
-0.27922916 0.059732709 -0.10950688
-0.28196728 0.059662737 -0.1001035
-0.28420639 0.059625261 -0.090657994
-0.28412837 0.059740003 -0.080898061
-0.28406709 0.059854068 -0.071103081
-0.2840066 0.059968501 -0.061270788
-0.28394604 0.060083363 -0.051400855
-0.28388512 0.060198668 -0.041493014
-0.28382397 0.060314421 -0.031547099
-0.28377372 0.060429882 -0.021565109
-0.28373516 0.06054499 -0.011547476
-0.28369659 0.060660526 -0.0014915764
-0.28286886 0.060829259 0.0087915808
-0.28188258 0.061009243 0.019170716
-0.28089041 0.0611903 0.029611439
-0.27989399 0.061372321 0.040113896
-0.27889299 0.061555337 0.050678566
-0.27822226 0.061677959 0.057756796
-0.27721107 0.061862819 0.06842722
-0.27619404 0.062048778 0.079161718
-0.27517498 0.062235571 0.089959636
-0.27296782 0.06246426 0.097702697
-0.26824135 0.062904716 0.1099024
-0.26502621 0.063203648 0.11814113
-0.26017439 0.063655473 0.13063662
-0.25548315 0.064057216 0.13959412
-0.24720722 0.064705297 0.15000381
-0.23672068 0.06550651 0.1614172
-0.19723219 0.067827836 -0.16684681
-0.23320568 0.065416113 -0.16504428
-0.24306583 0.064861156 -0.15559843
-0.24987435 0.064513005 -0.14611909
-0.25630522 0.064189471 -0.13671741
-0.25953668 0.064084478 -0.12713462
-0.26332563 0.06397967 -0.11435489
-0.2661407 0.063902557 -0.1047954
-0.26894915 0.06382563 -0.095258974
-0.26980174 0.063883796 -0.085484684
-0.26979983 0.064001448 -0.075568751
-0.26979792 0.064119525 -0.06561625
-0.26979589 0.064238049 -0.055626929
-0.26979405 0.064356998 -0.045600608
-0.26979589 0.064476132 -0.035537854
-0.26981157 0.064594738 -0.025440514
-0.26982725 0.064713784 -0.015305892
-0.26984304 0.064833269 -0.0051339269
-0.26937616 0.064987168 0.005187735
-0.26838744 0.065178454 0.015684739
-0.26772493 0.065306604 0.022717223
-0.26672328 0.065499991 0.033318669
-0.26571429 0.06569463 0.043983534
-0.26469922 0.065890431 0.054711893
-0.26368147 0.066087157 0.065503404
-0.26300967 0.066218249 0.072730646
-0.26197213 0.066417634 0.08363311
-0.2600674 0.066679776 0.094881997
-0.25655586 0.067015566 0.10317542
-0.25127041 0.067522153 0.11575656
-0.24770224 0.067864157 0.12425022
-0.24409759 0.068209641 0.13283034
-0.23662448 0.068834536 0.14290856
-0.22597462 0.069690019 0.15431513
-0.21456587 0.070557453 0.1623974
-0.073705316 0.080154635 -0.16161759
-0.21375215 0.070165135 -0.16415334
-0.22356772 0.06954544 -0.15787318
-0.22960651 0.069195621 -0.15148777
-0.23709822 0.068782046 -0.14192718
-0.24307501 0.068476208 -0.13236514
-0.24718624 0.068345547 -0.1193895
-0.25025946 0.068247877 -0.1096902
-0.25352287 0.068136044 -0.10004169
-0.25614208 0.068070628 -0.090344459
-0.25614947 0.068195149 -0.080307677
-0.2561571 0.068320118 -0.070234135
-0.25616461 0.068445548 -0.060123593
-0.2561723 0.068571433 -0.049975887
-0.25617987 0.068697788 -0.03979075
-0.2561875 0.068824612 -0.029568046
-0.25625402 0.068947576 -0.01931937
-0.25633305 0.069027245 -0.012473851
-0.25645185 0.069147103 -0.0021758527
-0.25554085 0.069343597 0.008396998
-0.25432664 0.069563322 0.019102529
-0.25310469 0.069784433 0.029876158
-0.25188124 0.07000649 0.040716752
-0.25110757 0.070151873 0.047969684
-0.24994099 0.070371069 0.058905616
-0.24876696 0.070591651 0.069910124
-0.24758583 0.070813604 0.080983832
-0.24679399 0.070962369 0.088405147
-0.24283153 0.071394786 0.10049783
-0.23902828 0.071771391 0.10902013
-0.23518461 0.072151996 0.11763285
-0.22804737 0.072828285 0.13118125
-0.2178784 0.073689602 0.14227821
-0.20998925 0.074333228 0.14891411
-0.19708765 0.075357065 0.1574607
-0.20158833 0.074592091 -0.15671396
-0.20958477 0.074079677 -0.1502924
-0.21976531 0.073445693 -0.14071083
-0.22706276 0.073027439 -0.13107316
-0.23117268 0.072849154 -0.12126137
-0.23506272 0.072686926 -0.11147701
-0.23843008 0.072563834 -0.10167933
-0.24162591 0.072453357 -0.091895029
-0.24160665 0.072587863 -0.081711575
-0.24163067 0.072719552 -0.071496472
-0.24172443 0.072846383 -0.061255053
-0.24181843 0.072973661 -0.050977841
-0.24191284 0.073101386 -0.040664598
-0.24200749 0.073229559 -0.030315295
-0.24210262 0.073358178 -0.019929618
-0.24219793 0.073487252 -0.0095073283
-0.24218589 0.073625125 0.00097543001
-0.24133873 0.073782407 0.0081774294
-0.24006122 0.074019596 0.0190382
-0.23877519 0.074258327 0.029969156
-0.23748112 0.074498586 0.040970728
-0.23644269 0.074672982 0.048390761
-0.23473716 0.07494697 0.059625164
-0.23302853 0.075222224 0.070939496
-0.23188239 0.075406864 0.078528747
-0.23015273 0.075685516 0.089982584
-0.22637838 0.076078236 0.098497435
-0.22114921 0.076586649 0.10756244
-0.21317267 0.07736215 0.12138934
-0.20745373 0.077912517 0.13087113
-0.1865958 0.079663008 0.14579858
-0.13733554 0.083021991 -0.16065356
-0.15886247 0.081377581 -0.15805215
-0.16765523 0.080734164 -0.15492421
-0.18374944 0.079562582 -0.14874995
-0.19353539 0.078886226 -0.14236234
-0.20321572 0.078216575 -0.13608684
-0.20922929 0.077882737 -0.12618014
-0.21361196 0.077677079 -0.11620794
-0.21797174 0.077472486 -0.10628828
-0.22230846 0.077268973 -0.096420743
-0.22409815 0.077267908 -0.086285114
-0.22416699 0.077404365 -0.075913325
-0.22423595 0.077541314 -0.065504849
-0.22430515 0.077678747 -0.055059448
-0.22439235 0.07781525 -0.044579983
-0.22457999 0.077944167 -0.034081683
-0.22470534 0.078030355 -0.027063519
-0.22489387 0.078159995 -0.016507074
-0.22508329 0.078290053 -0.0059154779
-0.22442168 0.078489572 0.0048994869
-0.22261202 0.078783073 0.016035274
-0.22139794 0.078979976 0.023505524
-0.21956581 0.079277158 0.034781128
-0.21771955 0.079576589 0.046141908
-0.21648091 0.079777472 0.053763524
-0.21461135 0.080080703 0.065268472
-0.21335715 0.080284134 0.072987095
-0.21144825 0.080592513 0.084643558
-0.20968652 0.080838956 0.092611864
-0.20174682 0.081594728 0.1025681
-0.19365525 0.082364932 0.11271299
-0.18540931 0.083149813 0.12305112
-0.16102743 0.08527039 0.13897713
-0.14447892 0.086385325 -0.1427505
-0.15971923 0.085180849 -0.14010744
-0.1727289 0.084209941 -0.13384068
-0.17921257 0.083776139 -0.12721226
-0.18717909 0.083269104 -0.11724754
-0.19330066 0.08291328 -0.10722461
-0.19936997 0.082560509 -0.097286955
-0.20246243 0.082454316 -0.087073341
-0.20266795 0.082588568 -0.076500729
-0.20287412 0.08272326 -0.065893605
-0.20308089 0.082858391 -0.055251792
-0.2032885 0.082993962 -0.044575185
-0.20342737 0.083084583 -0.037438005
-0.20364988 0.083219729 -0.026705533
-0.20400518 0.083344184 -0.015963912
-0.20436144 0.083469026 -0.0051899999
-0.20315003 0.083726965 0.0059569031
-0.20132422 0.083985724 0.013654336
-0.19856429 0.084376872 0.025289997
-0.19670993 0.084639668 0.033107504
-0.19390684 0.085036941 0.044925556
-0.19202328 0.08530388 0.052866057
-0.18917584 0.085707426 0.06487079
-0.18726242 0.08597859 0.072937176
-0.18371427 0.086444728 0.085324124
-0.17858815 0.08699327 0.094476715
-0.17064369 0.087729983 0.10071997
-0.10903406 0.09350241 -0.11393312
-0.13824117 0.091037571 -0.11278259
-0.15097547 0.090047561 -0.10659587
-0.15776932 0.089514732 -0.10360663
-0.16502953 0.088995099 -0.097069994
-0.16985762 0.088739239 -0.086699963
-0.17038202 0.088856496 -0.075832471
-0.17090797 0.088974051 -0.064936236
-0.17143524 0.089091919 -0.054011121
-0.1718024 0.089169376 -0.046713978
-0.17248619 0.08927428 -0.035766825
-0.17317164 0.089379415 -0.024793908
-0.17362952 0.089449644 -0.01746428
-0.1743176 0.089555204 -0.0064481944
-0.17278028 0.089857206 0.0050613433
-0.16957164 0.090251811 0.013250664
-0.16470551 0.090850256 0.025670454
-0.16142547 0.091253653 0.03404218
-0.15694654 0.091764264 0.042772874
-0.14851999 0.092626333 0.052578136
-0.14008784 0.093491063 0.062529549
